# .PCD v0.7 - Point Cloud Data file format
VERSION 0.7
FIELDS x y z intensity
SIZE 4 4 4 4
TYPE F F F F
COUNT 1 1 1 1
WIDTH 1450
HEIGHT 1
VIEWPOINT 0 0 0 1 0 0 0
POINTS 1450
DATA ascii
11.051762 5.82447 0.2900421 3
5.7343459 3.0221 -2.1902404 13
11.654262 6.1419978 0.61434227 45
6.1412263 3.2365327 -2.1661453 17
11.712637 6.1727629 0.92580789 36
6.6500649 3.5046997 -2.1554842 15
6.5005784 3.4259176 0.68554252 13
7.3463831 3.8716712 -2.1739104 6
6.9854627 3.6814601 0.92339808 40
8.243289 4.3443561 -2.2078357 3
7.0031662 3.6907899 1.1125499 29
9.338645 4.921628 -2.2437832 3
7.0203376 3.6998396 1.3037734 39
7.0314355 3.7056885 1.4975102 48
3.1352873 1.6404817 -2.0985215 9
10.804852 5.653441 -2.0034854 3
3.3107755 1.7323027 -2.0994501 24
10.741364 5.6202216 -1.7037573 14
3.5392542 1.85185 -2.1238894 28
3.8084276 1.99269 -2.1589744 9
11.279948 5.9020262 -1.1877164 6
4.0603433 2.1245003 -2.1691043 10
4.3547845 2.2785614 -2.1882432 8
22.107531 11.56736 -1.1635609 25
4.6994863 2.4589202 -2.2154112 7
22.099018 11.562907 -0.579063 33
5.01647 2.6247761 -2.2108057 12
11.860558 6.2058196 0 9
5.3586593 2.8038204 -2.2012417 17
11.107972 5.8120432 0.2910634 3
5.7416096 3.0041921 -2.1896 13
11.684827 6.1138716 0.61499447 30
6.1524944 3.2191801 -2.1667409 17
13.859294 7.2516217 1.0937815 33
6.6536222 3.4813859 -2.1532791 16
6.5001302 3.4010739 0.68442786 13
7.3526959 3.8471637 -2.1723907 6
6.9875565 3.656111 0.92223662 42
8.2492476 4.3162675 -2.2059913 3
7.0053134 3.6654019 1.1111581 35
9.3618746 4.8984294 -2.2458622 3
7.0172958 3.6716716 1.3011793 41
10.685502 5.5909934 -2.2721865 2
7.0284691 3.6775179 1.4945478 46
3.1368022 1.6301355 -2.0964808 9
3.315599 1.7230527 -2.0994501 27
10.830823 5.6285696 -1.7154478 12
3.5553789 1.8476619 -2.1304622 29
15.169399 7.883244 -1.9991858 0
3.8123899 1.9812254 -2.1580765 7
4.0678625 2.1139896 -2.1699598 9
15.435617 8.0215921 -1.2164135 1
4.3497806 2.2604969 -2.182549 10
22.249647 11.562713 -1.1693373 23
4.7112455 2.4483433 -2.2177236 8
22.241215 11.55833 -0.58194107 34
5.0254321 2.6116199 -2.2115333 12
22.257856 11.566978 0 24
5.371469 2.7914486 -2.2032938 17
11.161413 5.8003712 0.29203826 3
5.7466125 2.9864035 -2.1883197 13
11.744396 6.1033359 0.61723047 15
6.1546817 3.1984694 -2.1643579 17
13.856471 7.2009406 1.0919678 35
6.6633158 3.4627964 -2.1532791 15
6.4954638 3.375567 0.68294156 14
7.3685589 3.829298 -2.1739104 6
6.9889226 3.6320083 0.92107511 40
8.2698984 4.2977066 -2.2082968 3
7.0014601 3.6385236 1.1089313 38
9.3737783 4.8713717 -2.2454464 2
7.020515 3.6484261 1.2998824 34
10.744669 5.583797 -2.2814443 9
7.0247569 3.6506307 1.4915855 46
3.1459286 1.6237355 -2.0995414 9
11.488642 5.9297328 -2.1241031 10
3.3157501 1.711387 -2.0965111 29
11.590955 5.9825406 -1.8331883 9
3.5605254 1.837725 -2.1304622 29
15.263731 7.8782029 -2.0087104 1
3.8131437 1.9681112 -2.1553833 7
15.340229 7.917686 -1.6105605 0
4.073751 2.1026206 -2.1699598 9
4.3609476 2.2508538 -2.1849892 12
22.402575 11.562837 -1.1756727 25
4.7131453 2.4326367 -2.2154112 7
22.394228 11.558528 -0.58509779 25
5.0293951 2.5958655 -2.2100782 12
22.409147 11.566229 0 22
5.3775744 2.7755742 -2.2026098 17
11.205997 5.7838492 0.292781 3
5.7515631 2.9686043 -2.1870391 13
6.1585011 3.1786408 -2.1625707 16
13.860573 7.1539783 1.0907122 35
6.6780863 3.4468188 -2.154933 14
6.4889398 3.3491931 0.68126947 14
7.3826632 3.8104784 -2.1749234 6
6.9884477 3.6070085 0.91968125 42
8.2818689 4.2745934 -2.2082968 3
6.9922357 3.6089635 1.1058695 31
9.3873463 4.8451734 -2.2454464 2
7.0131392 3.6197526 1.2966399 30
10.788167 5.5681906 -2.2873693 3
7.024447 3.6255889 1.4893636 48
3.1446092 1.6112555 -2.0954609 7
3.3270209 1.7047209 -2.1004298 28
11.508186 5.8966403 -1.8173225 13
3.5706782 1.8295676 -2.1332788 29
15.368365 7.8745437 -2.0193963 2
3.8269203 1.9608626 -2.1598721 8
15.422142 7.9020982 -1.6166915 0
4.08319 2.0921719 -2.1716714 9
4.3627291 2.2354038 -2.182549 11
22.554136 11.556437 -1.1818216 27
4.723628 2.4203236 -2.2169528 7
22.552992 11.55585 -0.58834726 25
5.0337601 2.579231 -2.2086234 12
22.562628 11.560787 0 25
5.3841138 2.7587476 -2.2019255 17
21.428366 10.979607 0.55900884 7
5.7637196 2.9532526 -2.1883197 12
15.760336 8.0753841 0.82583106 4
6.1662073 3.159482 -2.1619751 16
13.853331 7.0982604 1.08848 35
6.6917071 3.4287407 -2.1560357 12
6.4953051 3.3281071 0.68089795 13
7.3939381 3.7885544 -2.1749234 6
6.988513 3.5808201 0.91828746 42
8.2910538 4.2482243 -2.2073746 3
6.995863 3.5845864 1.1047561 31
9.3999424 4.8164039 -2.2450306 2
7.0150681 3.5944266 1.2950188 30
10.797646 5.5325685 -2.285888 3
7.0281773 3.6011436 1.4878823 46
3.149375 1.6019202 -2.0954609 7
11.486685 5.8426681 -2.1172941 3
3.3320632 1.694844 -2.1004298 28
11.587413 5.8939033 -1.8270645 6
3.5697935 1.8157649 -2.1295233 29
15.457169 7.8622427 -2.0279913 2
3.8311272 1.9486915 -2.1589744 7
15.516511 7.892427 -1.6241227 0
4.0926008 2.0816894 -2.1733828 9
4.3628273 2.2191391 -2.1792951 11
22.709406 11.551072 -1.188157 30
4.7340765 2.407974 -2.2184944 8
22.701231 11.546913 -0.59131825 27
5.0397282 2.5634427 -2.207896 12
22.718042 11.555465 0 23
5.3905988 2.7419121 -2.2012417 15
5.7741432 2.9370008 -2.1889598 12
6.1806574 3.1437731 -2.1637623 16
12.885589 6.5542169 1.0109109 11
6.7052755 3.4106185 -2.1571381 17
6.4909492 3.3016021 0.67941165 11
7.4051437 3.7666044 -2.1749234 7
6.9867105 3.5537696 0.91666132 40
8.3088236 4.2262583 -2.2087581 3
6.9994049 3.5602264 1.1036428 33
9.4089565 4.7858381 -2.2437832 2
7.0133862 3.567338 1.2927492 31
10.826272 5.5067511 -2.28848 2
7.0283179 3.5749331 1.4856604 48
3.1630492 1.5977721 -2.1015821 9
3.335227 1.6847454 -2.0994501 29
11.674539 5.8972378 -1.8381984 5
3.571698 1.8041955 -2.1276453 28
15.567719 7.8638258 -2.0396063 7
3.8349588 1.9371783 -2.1580765 7
15.618478 7.8894653 -1.632483 3
4.0967846 2.0694361 -2.1725268 9
4.3706384 2.2077696 -2.1801085 11
22.862839 11.548858 -1.1944923 27
4.7457247 2.3972397 -2.2208071 8
22.849392 11.542066 -0.59433568 24
5.0468674 2.5493579 -2.207896 12
22.876972 11.555997 0 25
5.3898473 2.7226095 -2.1978214 17
5.780632 2.9200091 -2.1883197 13
6.1843009 3.1239171 -2.1619751 16
12.882473 6.5074091 1.0092367 33
6.6993303 3.3840773 -2.1521766 16
6.48948 3.2780743 0.67829698 12
7.4104533 3.7432916 -2.173404 7
6.9841967 3.5279737 0.91503525 42
8.3171196 4.201282 -2.2078357 3
6.9987135 3.5353067 1.1019727 40
9.422286 4.759542 -2.2437832 2
7.0109906 3.5415084 1.2904794 30
10.845118 5.4782662 -2.2892206 2
7.0259938 3.549087 1.4830683 46
3.1600876 1.5845238 -2.0964808 7
11.566017 5.7994056 -2.1257243 9
3.3417704 1.6756227 -2.1004298 28
15.833048 7.9389701 -2.4892504 0
3.5801933 1.7951722 -2.1295233 27
15.612296 7.8282809 -2.0423942 4
3.8390932 1.9249892 -2.1571789 7
15.707685 7.8761106 -1.639357 1
4.1029077 2.0572703 -2.1725268 9
23.04262 11.553977 -1.8025074 3
4.3804374 2.1964285 -2.1817355 12
23.020233 11.542751 -1.2009208 28
4.7544675 2.3839741 -2.2215781 8
23.017593 11.541429 -0.59781724 27
5.0527453 2.5335357 -2.2071683 12
23.02916 11.547228 0 27
5.3962231 2.7057617 -2.1971374 17
12.847528 6.4419775 0.33367839 21
5.7757211 2.8960485 -2.1831977 13
12.926334 6.4814925 0.67434174 39
6.1935439 3.1055522 -2.1619751 16
12.883892 6.4602108 1.0078416 36
6.7110615 3.3650448 -2.1527278 16
6.4849377 3.2516625 0.67681068 13
7.4301758 3.7256212 -2.1759362 7
6.9839802 3.5018909 0.91364145 42
8.3295498 4.1765833 -2.2078357 3
6.9950099 3.5074215 1.099746 40
9.4346199 4.7306848 -2.2433674 2
7.0126476 3.5162654 1.2888582 30
10.873625 5.4522276 -2.2918127 3
7.0294671 3.5246992 1.4815873 48
3.1647739 1.5751427 -2.0964808 7
11.63264 5.7896924 -2.1348031 10
3.3467262 1.6657023 -2.1004298 28
15.870712 7.8990278 -2.491477 1
3.5918264 1.7876915 -2.1332788 29
15.786609 7.8571687 -2.0621397 3
3.8511865 1.9167777 -2.1607695 8
15.816551 7.8720708 -1.6482747 1
4.1041369 2.0426741 -2.1699598 9
23.142879 11.518465 -1.8076693 28
4.393476 2.186681 -2.1849892 12
23.184935 11.539397 -1.2077219 28
4.7598658 2.3690374 -2.2208071 8
23.171659 11.532789 -0.60092753 25
5.0585704 2.5177062 -2.2064409 12
23.190437 11.542135 0 27
5.4008603 2.6880674 -2.1957693 18
12.854051 6.3976021 0.33335346 21
5.7775011 2.8755257 -2.1806369 13
12.909733 6.4253159 0.67247844 14
6.1976008 3.084614 -2.1601877 17
12.886923 6.4139628 1.0065858 35
6.7227345 3.3459787 -2.1532791 16
6.4802933 3.2253129 0.67532444 16
7.4325347 3.699254 -2.173404 7
6.9818888 3.4749627 0.91201532 40
8.3349333 4.1483879 -2.2059913 3
6.9965177 3.4822435 1.0983542 43
9.4433565 4.7000623 -2.2421198 2
7.008913 3.4884131 1.2862643 30
10.896789 5.4234509 -2.293294 3
7.027575 3.4977012 1.4789951 47
3.1707027 1.56706 -2.097501 9
11.712458 5.788661 -2.1464758 9
3.3529286 1.6571217 -2.1014097 28
3.5920556 1.7753056 -2.1304622 28
3.8485136 1.9020553 -2.1562812 7
4.1146874 2.0336065 -2.1725268 9
4.3979278 2.1735928 -2.184176 12
13.416577 6.6308904 -0.69791293 29
4.763155 2.3540995 -2.2192655 8
5.0639119 2.5027428 -2.2057135 12
13.406056 6.6256905 0 21
5.4083467 2.6729732 -2.1957693 17
12.846773 6.3492751 0.33270356 21
5.7855096 2.8593788 -2.1806369 13
12.841659 6.3467474 0.66800642 10
6.2044797 3.066447 -2.1595922 15
12.883323 6.3673391 1.0049118 24
6.733777 3.3280423 -2.1538305 16
6.492846 3.2089665 0.67569596 25
7.4324293 3.6733379 -2.1703649 6
6.9773197 3.4484086 0.91015691 36
8.3395081 4.1216445 -2.2041469 3
6.995563 3.4574249 1.0966841 40
9.4581995 4.6745367 -2.2425356 2
7.0062432 3.4627035 1.2839947 33
10.903082 5.3886428 -2.2914424 6
7.0232201 3.4710941 1.4760326 43
3.1771555 1.5578479 -2.0985215 14
12.751255 6.2522955 -2.3332388 3
3.3596838 1.6473466 -2.1023891 28
3.592859 1.7616788 -2.1276453 28
3.8592846 1.8923148 -2.1589744 7
4.1194339 2.0198731 -2.1716714 9
4.3981733 2.1565468 -2.180922 11
13.408644 6.5746317 -0.69642228 39
4.7771559 2.3423724 -2.2223487 7
13.408828 6.5747218 -0.34672287 49
5.0717502 2.4868202 -2.2057135 12
13.401667 6.5712104 0 38
5.416718 2.6559677 -2.1957693 17
12.852296 6.3018389 0.33233219 19
5.7910624 2.8395193 -2.1793563 13
12.829247 6.2905374 0.66632938 22
6.2157979 3.0477788 -2.1601877 14
11.353726 5.5670481 0.88423306 4
6.7442002 3.3068693 -2.1538305 14
6.4850159 3.1797841 0.67383814 29
7.45262 3.6542273 -2.1728976 6
6.9792018 3.422097 0.90899539 34
8.3541632 4.0962791 -2.204608 3
6.9957213 3.4301972 1.0950141 43
9.474596 4.6456585 -2.2429514 2
7.0082283 3.4363296 1.2823734 31
11.009959 5.3984895 -2.310328 3
7.0323267 3.4481456 1.4756622 41
3.1737597 1.5452048 -2.0934205 18
12.756243 6.2106171 -2.3309689 3
3.3611355 1.6364321 -2.1004298 29
13.346345 6.4979196 -2.086205 55
3.6025274 1.7539583 -2.1304622 28
3.8741951 1.8862249 -2.1643603 8
13.361939 6.5055118 -1.3865051 49
4.1299343 2.0107362 -2.1742382 9
13.389068 6.5187201 -1.0413246 51
4.4041781 2.1442573 -2.180922 11
13.410786 6.5292935 -0.69558382 45
4.7803593 2.3274081 -2.2208071 7
13.412754 6.530252 -0.3463515 53
5.0836997 2.475095 -2.207896 11
13.392992 6.5206304 0 40
5.4207339 2.6391864 -2.1944013 17
12.855462 6.258924 0.33196083 20
5.800673 2.8241668 -2.1799967 12
12.832394 6.2476926 0.66558409 23
6.222568 3.0295744 -2.1595922 16
11.41228 5.5562835 0.88758141 8
6.7447653 3.2838161 -2.1510739 15
6.4884992 3.1590481 0.67328078 37
7.4645352 3.6342497 -2.173404 6
6.9780145 3.397378 0.90760165 34
8.3690691 4.0746388 -2.2055299 3
6.9945889 3.4054472 1.093344 40
9.4910498 4.6208968 -2.2437832 2
7.008925 3.4124272 1.2807522 31
11.035593 5.3728867 -2.3125498 3
7.02249 3.4190316 1.471589 49
3.1749649 1.5348393 -2.0913801 22
12.75932 6.1681018 -2.3283751 3
3.3656917 1.6270403 -2.1004298 29
13.350172 6.4537306 -2.0839782 47
3.6058214 1.7431235 -2.1295233 27
13.357932 6.4574819 -1.7350593 57
3.8649654 1.8683988 -2.1562812 7
13.360331 6.4586415 -1.3844615 48
4.1290226 1.9960492 -2.1708157 9
13.38746 6.471756 -1.03979 55
4.4167285 2.1351318 -2.184176 11
13.409179 6.4822559 -0.69455898 47
4.7885013 2.3148539 -2.2215781 8
13.412933 6.4840708 -0.34588727 53
5.0855594 2.4584575 -2.2057135 11
13.414748 6.4849482 0 50
5.4331589 2.6264937 -2.1964533 15
12.851286 6.2125597 0.33140376 20
5.8034182 2.8054843 -2.178076 13
12.8336 6.2040095 0.66474557 21
6.2292843 3.0113561 -2.1589961 16
11.478045 5.5487084 0.89148772 8
6.7591009 3.2674799 -2.1527278 14
6.4919162 3.1383176 0.67272347 35
7.4729118 3.6125498 -2.1728976 5
6.9749546 3.3718276 0.90597546 34
8.3804131 4.0512533 -2.2055299 3
6.9951544 3.3815928 1.0919522 40
9.5056782 4.5952282 -2.244199 3
7.0059881 3.3868299 1.2784824 31
11.039936 5.3369184 -2.310328 3
7.0302401 3.3985536 1.4712187 51
3.1859756 1.5278316 -2.0954609 30
12.776856 6.1271296 -2.3280509 3
3.3755035 1.6187195 -2.1033688 28
13.350739 6.4023342 -2.0809164 47
3.61128 1.7317859 -2.1295233 28
13.353079 6.4034562 -1.731807 55
3.8756509 1.8585647 -2.1589744 7
13.362602 6.4080229 -1.3826036 50
4.1401634 1.9854114 -2.1733828 8
13.38614 6.4193106 -1.0381159 49
4.4234147 2.1212444 -2.184176 11
13.416869 6.4340467 -0.69390678 50
4.8007426 2.3021917 -2.2238905 8
13.411605 6.4315224 -0.34533021 53
5.0949383 2.4432728 -2.2064409 12
13.409809 6.4306612 0 50
5.4396892 2.6085978 -2.1957693 15
12.856319 6.1652355 0.3310324 18
5.8173294 2.7896948 -2.1799967 13
12.84222 6.1584744 0.66418654 11
6.2387147 2.9917696 -2.1589961 17
11.547591 5.5376363 0.89553356 9
6.7658663 3.2445648 -2.1516254 13
6.4945621 3.1144609 0.67198032 21
7.4946918 3.5940723 -2.1759362 3
6.9711847 3.343025 0.90411711 36
8.4001198 4.0282698 -2.2073746 3
6.9896722 3.3518908 1.0894471 33
9.5130119 4.5619559 -2.2425356 3
7.0041375 3.3588276 1.2762128 31
11.044245 5.296257 -2.3077359 3
7.0284777 3.3704996 1.4686265 51
3.1884115 1.5187463 -2.0944407 30
12.780382 6.0877204 -2.3257811 3
3.3781557 1.6091278 -2.1023891 28
13.351361 6.3596969 -2.0784113 43
3.6158013 1.7223263 -2.1295233 28
13.353657 6.3607903 -1.7297163 52
3.8772764 1.8468754 -2.1571789 7
13.357759 6.3627439 -1.3803743 44
4.1469789 1.9753437 -2.1742382 9
13.384887 6.3756657 -1.0367208 49
4.4322519 2.1112287 -2.1858027 11
13.408416 6.3868742 -0.69260246 47
4.8067532 2.2896163 -2.2238905 7
13.40854 6.3869328 -0.34481961 50
5.0945892 2.426722 -2.203531 12
13.412154 6.3886542 0 50
5.4464993 2.5943487 -2.1957693 15
12.859779 6.1255403 0.33070743 18
5.8194809 2.772012 -2.178076 12
12.842066 6.1171026 0.66334808 9
6.2465253 2.9754276 -2.1589961 17
11.616085 5.5331273 0.899719 13
6.7743373 3.2268419 -2.1516254 15
6.4883108 3.0905979 0.67049408 28
7.5040751 3.5744402 -2.1759362 3
6.9745321 3.3222013 0.90342021 40
8.4141502 4.0079393 -2.2082968 3
6.991271 3.3301747 1.0883337 35
9.5213909 4.5353546 -2.241704 3
7.0075617 3.3379345 1.2752401 30
11.04565 5.2614102 -2.3051438 3
7.0159845 3.3419464 1.4641829 51
3.1916113 1.5079877 -2.0934205 29
12.813718 6.0542865 -2.3283751 3
3.3831937 1.5985075 -2.1023891 28
13.347995 6.3067245 -2.0747929 43
3.6275809 1.7139767 -2.1332788 29
13.352019 6.3086257 -1.7269287 49
3.883059 1.8346863 -2.1571789 7
13.343471 6.3045869 -1.3768444 44
4.1531639 1.9623066 -2.1742382 8
13.363358 6.3139834 -1.0335119 49
4.4372101 2.0965142 -2.1849892 10
13.401318 6.3319187 -0.69120491 50
4.8155909 2.2752934 -2.2246614 8
13.405037 6.3336759 -0.34421611 50
5.100503 2.40991 -2.2028036 12
13.410457 6.336237 0 50
5.4529228 2.5764232 -2.1950853 15
12.864495 6.0782781 0.33033606 18
5.8264475 2.7529078 -2.1774359 13
12.908184 6.0989203 0.66577041 31
6.2541151 2.9549742 -2.1584005 16
11.69294 5.5247359 0.90432292 13
6.7792258 3.2030809 -2.1499715 13
6.4907856 3.0667973 0.66975093 26
7.5135174 3.5500226 -2.1754298 3
6.972362 3.2943349 0.90179408 42
8.4231806 3.9798245 -2.2073746 3
6.9873724 3.3014271 1.086107 40
9.5426655 4.5087643 -2.2433674 3
7.0073066 3.3108456 1.2732947 28
11.051462 5.2216477 -2.302922 3
7.0246706 3.3190498 1.4638125 43
3.1880233 1.4954156 -2.0883195 28
12.841296 6.0235047 -2.3303204 3
3.3892233 1.5897931 -2.1033688 28
13.340452 6.2576456 -2.0708959 40
3.6227605 1.6993392 -2.1276453 28
13.348003 6.261188 -1.7241411 52
3.8978758 1.8283882 -2.162565 8
13.361026 6.2672963 -1.3768444 50
4.156991 1.9499322 -2.1733828 9
13.379134 6.2757902 -1.0333724 58
4.4413939 2.083338 -2.184176 10
13.408096 6.2893758 -0.69064599 53
4.8202558 2.2610517 -2.2238905 7
13.406381 6.2885709 -0.34379831 53
5.107213 2.3956556 -2.2028036 11
13.408182 6.2894158 0 50
5.4549928 2.5587897 -2.193033 15
12.87961 6.0414772 0.33028963 17
5.8306813 2.7350152 -2.1761553 13
12.94868 6.0738759 0.66698158 21
6.2588868 2.9358747 -2.1572092 17
11.773349 5.5225596 0.90934539 16
6.7881446 3.1841352 -2.1499715 13
6.4975224 3.047812 0.66956514 26
7.5198994 3.5273817 -2.174417 3
6.9707441 3.2697878 0.90040028 42
8.4413109 3.9595907 -2.2092192 3
6.9858065 3.2768531 1.0844369 43
9.5676184 4.4879112 -2.2462783 3
7.0022316 3.2845576 1.2707007 28
11.048208 5.182416 -2.2992189 7
7.0267954 3.2960799 1.4623313 47
3.190886 1.4852244 -2.0872993 28
12.58715 5.8587933 -2.2810359 3
3.3986676 1.581938 -2.106308 28
13.341003 6.2096806 -2.0681124 43
3.6261859 1.6878383 -2.1267064 28
13.344911 6.2114992 -1.7213534 57
3.8968022 1.8137989 -2.1589744 7
13.359703 6.2183847 -1.3748008 53
4.1676745 1.9398788 -2.1759496 9
13.381415 6.2284908 -1.0321168 55
4.4475555 2.0701516 -2.184176 10
13.408586 6.241137 -0.68971425 50
4.8286157 2.2475193 -2.2246614 7
13.40504 6.2394867 -0.34328768 53
5.1092315 2.3781343 -2.2006211 12
13.405025 6.23948 0 54
5.4642644 2.5433872 -2.1937172 15
12.879352 5.994801 0.32982543 16
5.826746 2.7121072 -2.1716735 14
12.857969 5.9848485 0.66139156 21
6.2693 2.9180977 -2.1578047 17
11.856607 5.5187564 0.91450739 15
6.7975616 3.1639814 -2.1499715 13
6.4902883 3.0209584 0.66789311 26
7.5285783 3.5042393 -2.1739104 3
6.9714103 3.2449007 0.89923877 40
8.4441996 3.9304228 -2.2069135 3
6.9829292 3.2502623 1.0824884 48
9.5667019 4.4529009 -2.2429514 6
6.9994216 3.2579389 1.2684311 30
11.061753 5.1487846 -2.2988486 13
7.0222893 3.2685826 1.4593689 41
3.1984029 1.4771922 -2.0893397 28
3.4001808 1.5703839 -2.1043484 26
13.343189 6.1625929 -2.0656073 43
3.6343846 1.6785516 -2.1285844 28
13.347053 6.1643767 -1.7192627 55
3.8972998 1.7999798 -2.1562812 7
13.356401 6.168695 -1.3725713 50
4.1750536 1.9282613 -2.1768053 9
13.379915 6.1795549 -1.0305822 55
4.4686074 2.0638399 -2.1914973 8
13.412536 6.1946206 -0.68896896 50
4.838614 2.2347288 -2.2262032 7
13.405342 6.191298 -0.34282348 53
5.1111917 2.3606195 -2.1984386 12
13.401692 6.1896129 0 48
5.4683747 2.5255857 -2.1923492 15
12.871671 5.9448204 0.32917553 17
5.8364878 2.6955998 -2.1723139 13
12.862976 5.9408045 0.66073942 32
6.2744651 2.8978808 -2.1566133 16
11.932703 5.5111551 0.91911131 14
6.8069205 3.1437969 -2.1499715 13
6.4956079 3.0000162 0.66752148 28
7.5406995 3.4826951 -2.174417 3
6.9755979 3.2217011 0.89854187 38
8.4540586 3.9045327 -2.2064524 3
6.9835529 3.2253754 1.0810968 46
9.5763216 4.4228535 -2.2421198 6
7.0000997 3.2330174 1.2668098 31
11.060924 5.1085215 -2.2955158 15
7.0212512 3.2427864 1.4571471 43
3.2006955 1.4680971 -2.0883195 27
12.415178 5.6946015 -2.2440724 21
3.40745 1.5629313 -2.106308 28
13.339474 6.1185584 -2.0625455 47
3.6371608 1.6682953 -2.1276453 28
13.341477 6.1194773 -1.7164751 57
3.9084961 1.7927516 -2.1598721 7
13.350783 6.1237459 -1.370342 50
4.175158 1.9150641 -2.1742382 9
13.376098 6.1353569 -1.0290475 55
4.4739947 2.0521348 -2.1914973 7
13.408731 6.1503253 -0.68794411 53
4.837738 2.2189767 -2.2231195 7
13.401514 6.1470146 -0.34231284 56
5.1139674 2.3456779 -2.1969838 12
13.403306 6.1478372 0 50
5.4715509 2.5096946 -2.1909809 15
12.879919 5.9077697 0.32898983 14
5.8418026 2.6795218 -2.1716735 13
12.858508 5.8979487 0.65971458 32
6.2837653 2.8822415 -2.1572092 16
12.025069 5.5156665 0.9251104 13
6.8186221 3.1275699 -2.1510739 11
6.492579 2.9780202 0.66640681 21
7.5533071 3.4645557 -2.1754298 3
6.5308056 2.995554 0.84023416 48
8.4624825 3.8815768 -2.2059913 3
6.5023184 2.9824877 1.0053866 35
9.5860891 4.3969536 -2.241704 6
6.9995699 3.2105672 1.2651886 35
11.068899 5.0770898 -2.2944047 14
7.0136375 3.2170198 1.4538143 39
3.2050378 1.458593 -2.0883195 28
12.40867 5.6471095 -2.2398572 2
3.4136598 1.5535356 -2.1072874 27
12.4905 5.68435 -1.928661 13
3.6517394 1.6618842 -2.1332788 29
13.343305 6.0724559 -1.7143843 57
3.9121721 1.7804055 -2.1589744 7
13.350772 6.0758543 -1.368484 50
4.1857586 1.9049129 -2.1768053 9
13.377902 6.088201 -1.027792 58
4.4867167 2.041877 -2.194751 7
13.408739 6.1022348 -0.68701243 57
4.8443012 2.2046118 -2.2231195 6
13.399676 6.0981102 -0.34180218 56
5.1259928 2.3328078 -2.1991663 11
13.399647 6.0980968 0 54
5.4789743 2.4934475 -2.1909809 15
12.882834 5.8628988 0.32861847 13
5.8549018 2.6645298 -2.1735942 13
12.85595 5.8506641 0.65868968 32
6.2853389 2.8604193 -2.1548259 17
12.121284 5.5163217 0.9312489 10
6.8226233 3.1049337 -2.1494203 14
6.4959497 2.9562666 0.66584945 21
7.5670781 3.4437308 -2.1764431 6
6.9518981 3.1637661 0.89319897 32
8.4810476 3.8596728 -2.2078357 3
6.5057321 2.9607186 1.0045515 36
9.5919714 4.3652472 -2.2400408 3
6.9893074 3.1807909 1.261622 33
11.067817 5.0368953 -2.2910721 15
7.0159979 3.1929376 1.4523331 39
3.2122335 1.4510539 -2.0903599 28
3.419574 1.5447153 -2.1082673 27
12.490081 5.6421118 -1.9261559 18
3.653147 1.6502266 -2.1314011 27
13.340297 6.0261774 -1.7118291 57
3.9220147 1.7716815 -2.1616673 6
13.347724 6.0295324 -1.3664405 53
4.194356 1.8947055 -2.1785164 9
13.376668 6.0426073 -1.0263968 55
4.4940658 2.0300925 -2.1955645 8
13.405699 6.0557218 -0.68598759 53
4.8588476 2.1948745 -2.226974 7
13.394787 6.0507922 -0.34124514 53
5.1324868 2.3184848 -2.1991663 12
13.394751 6.050776 0 59
5.4842029 2.4773648 -2.1902969 17
12.873645 5.8153782 0.32796857 14
5.8554125 2.6450503 -2.1710334 14
12.854032 5.8065186 0.65775806 32
6.2967825 2.844429 -2.1560175 17
6.829515 3.085079 -2.148869 14
6.4842172 2.9290986 0.66380584 17
7.5731373 3.4209936 -2.1754298 6
6.9661365 3.1467948 0.89389586 32
8.4935656 3.8367763 -2.2082968 3
6.5356336 2.9523246 1.0078917 26
9.6255178 4.3481102 -2.2450306 2
6.987371 3.1563869 1.2596766 33
11.078257 5.0043521 -2.2903316 15
7.0177221 3.1700974 1.4508519 43
3.2243736 1.445035 -2.0954609 29
12.413973 5.5634446 -2.2349935 18
3.4432352 1.5431199 -2.1200233 14
3.654804 1.6379366 -2.1295233 27
13.339989 5.9784479 -1.709506 57
3.9256229 1.7593067 -2.1607695 7
13.349198 5.9825754 -1.3647684 53
4.1983094 1.881514 -2.1776609 9
13.376329 5.9947348 -1.0250016 52
4.4984016 2.0160034 -2.194751 8
13.405375 6.0077515 -0.68505591 50
4.858602 2.1774306 -2.2238905 7
13.396258 6.0036654 -0.34082735 53
5.1325421 2.3001995 -2.1962562 12
13.396217 6.0036473 0 64
5.4898138 2.4603145 -2.1896129 17
12.868947 5.7673459 0.3274115 14
5.8545885 2.6237919 -2.1678321 13
12.852971 5.7601862 0.65682638 31
6.2999668 2.8233924 -2.1542304 17
12.872009 5.7687182 0.9863565 41
6.8316207 3.0616584 -2.1466639 12
6.4837923 2.9057755 0.6628769 12
7.5797229 3.3969278 -2.174417 7
6.9627523 3.1204264 0.89226967 32
8.4960327 3.8075812 -2.2059913 3
6.9781246 3.1273155 1.0746948 26
9.6401606 4.3203335 -2.2454464 3
6.9949036 3.1348352 1.2593523 35
11.076913 4.9642282 -2.2869987 10
7.016335 3.1444399 1.4486301 41
3.2210367 1.4314057 -2.0903599 28
12.438601 5.5276256 -2.2362905 18
3.4480655 1.5322957 -2.1200233 10
3.6615448 1.6271642 -2.1304622 27
13.335104 5.9260249 -1.7064861 52
3.92623 1.7447885 -2.1580765 7
13.351548 5.9333324 -1.3630964 53
4.2025471 1.8675818 -2.1768053 9
13.37504 5.9437723 -1.0234669 55
4.5030427 2.0011199 -2.1939375 7
13.398622 5.9542518 -0.68375158 53
4.8586721 2.1591592 -2.2208071 8
13.396779 5.9534326 -0.34036312 56
5.1363378 2.2825518 -2.1948013 12
13.393079 5.9517884 0 64
5.4957976 2.4422932 -2.1889288 17
12.92537 5.7439423 0.32838637 13
5.8645334 2.6061568 -2.1684723 14
12.850921 5.7108569 0.65580153 32
6.3122945 2.8051383 -2.1554217 16
12.882774 5.7250128 0.98579848 41
6.8429608 3.0409629 -2.1472151 12
6.4837899 2.8813498 0.66194797 10
7.5832839 3.3699572 -2.1723907 8
6.9652591 3.0953114 0.89134049 30
8.5097294 3.7816629 -2.2064524 3
6.9788647 3.1013575 1.073303 30
9.6447468 4.2860565 -2.2433674 2
6.9993062 3.1104417 1.2583796 35
11.090656 4.9286079 -2.2866285 3
7.0154014 3.1175942 1.4464083 43
3.2357903 1.4278283 -2.097501 30
12.528867 5.528501 -2.2499087 4
3.4504707 1.5225585 -2.1190436 9
3.6625619 1.616146 -2.1285844 28
13.336036 5.8846736 -1.7046278 55
3.9275153 1.7330596 -2.1562812 7
13.345176 5.8887067 -1.3608669 53
4.2074227 1.8565719 -2.1768053 9
13.370479 5.8998718 -1.0219324 58
4.5099387 1.9900603 -2.194751 8
13.401372 5.9135036 -0.68309945 57
4.8626204 2.1456852 -2.2200363 9
13.394029 5.9102635 -0.33989891 56
5.1405921 2.2683432 -2.1940737 12
13.397638 5.9118567 0 60
5.5021739 2.4278951 -2.1889288 17
12.965976 5.7213802 0.32903627 12
5.8730712 2.5915577 -2.1691127 13
12.860346 5.6747699 0.65552205 36
6.3196177 2.7886012 -2.1554217 17
12.875817 5.6815968 0.98412436 43
6.8491411 3.0222595 -2.1466639 11
6.4822025 2.8603437 0.66101903 8
7.5920815 3.3500903 -2.1723907 9
6.9697056 3.0754597 0.89087594 28
8.5178223 3.7585835 -2.2059913 3
6.977901 3.0790761 1.0719113 31
9.6595163 4.2623687 -2.244199 2
6.996593 3.0873241 1.2564341 35
11.096332 4.896379 -2.2851474 3
7.0145497 3.0952477 1.4445567 47
3.246069 1.4215463 -2.1015821 29
12.6003 5.5180311 -2.2599602 16
3.4563067 1.5136155 -2.1200233 8
13.330721 5.8379035 -2.0452881 50
3.670296 1.6073275 -2.1304622 28
13.337862 5.8410306 -1.7027694 55
3.9405255 1.7256688 -2.1607695 7
13.345153 5.8442235 -1.359195 50
4.2059679 1.8419136 -2.1733828 9
13.372283 5.8561049 -1.0208162 58
4.518826 1.9789231 -2.196378 7
13.397705 5.867238 -0.68207461 53
4.8635225 2.1298754 -2.2177236 8
13.388505 5.8632088 -0.33934185 62
5.1503201 2.2554722 -2.1955287 12
13.392113 5.8647885 0 64
5.5106549 2.4132731 -2.1896129 17
12.974578 5.6819386 0.32885057 12
5.8837571 2.5766654 -2.170393 13
12.923724 5.659668 0.65794438 17
6.3256316 2.7701747 -2.1548259 17
12.926358 5.6608214 0.9867751 21
6.8522716 3.0008056 -2.14501 9
6.4883418 2.8414302 0.6608333 6
7.6014085 3.3288739 -2.1723907 12
6.9637103 3.0496078 0.88901746 28
8.5229368 3.7324376 -2.204608 3
6.966517 3.0508368 1.0688494 31
9.66959 4.2345896 -2.2437832 3
6.9925337 3.0622301 1.2541645 35
11.109963 4.8653703 -2.2851474 3
7.0105643 3.0701265 1.4419646 47
3.2457845 1.4092866 -2.0985215 30
13.021261 5.6536989 -2.3322659 3
3.459445 1.5020559 -2.1190436 7
13.330827 5.7881093 -2.0425045 47
3.6753271 1.5957896 -2.1304622 28
13.336101 5.7903991 -1.700214 48
3.950845 1.7154167 -2.1634626 7
13.347006 5.7951341 -1.3575228 50
4.2200241 1.8322915 -2.1776609 9
13.370482 5.8053274 -1.0192816 55
4.523344 1.96399 -2.1955645 7
13.399576 5.8179598 -0.68123609 53
4.8651109 2.1123815 -2.2154112 9
13.39035 5.8139539 -0.33892405 66
5.1505446 2.2363141 -2.1926188 12
13.392124 5.814724 0 56
5.521656 2.3974469 -2.1909809 15
13.058389 5.6698194 0.33052173 15
5.883132 2.5543962 -2.167192 12
13.025738 5.6556425 0.66223007 18
6.3360543 2.7510502 -2.1554217 15
13.030089 5.6575322 0.99333221 22
6.8546104 2.976202 -2.1428049 7
6.4844494 2.8154819 0.65953279 6
7.6153779 3.3065195 -2.173404 12
6.9641452 3.023761 0.88785601 28
8.5417604 3.7087457 -2.2064524 3
6.9578996 3.0210493 1.066066 20
9.6828442 4.2041926 -2.2437832 3
6.9948773 3.0371044 1.2528675 35
11.125192 4.8304453 -2.2851474 3
7.0093575 3.0433917 1.4397428 47
3.2467916 1.3982898 -2.0964808 28
13.054291 5.6220675 -2.3351841 3
3.462285 1.4910959 -2.1180642 8
13.331571 5.7414832 -2.0399995 43
3.6849115 1.586974 -2.1332788 24
13.334978 5.7429504 -1.697891 48
3.9526343 1.7022737 -2.1616673 7
13.345852 5.7476335 -1.3556651 53
4.2188005 1.8169031 -2.1742382 10
13.371156 5.7585311 -1.018026 55
4.5341854 1.9527293 -2.198005 7
13.392925 5.7679067 -0.68002492 50
4.8544073 2.0906386 -2.2077026 10
13.39285 5.7678738 -0.33855268 66
5.1537347 2.2195494 -2.1911638 12
13.394622 5.7686372 0 60
5.5252929 2.3795679 -2.1896129 17
13.099027 5.6413336 0.33112523 9
5.8906851 2.5369306 -2.167192 12
13.126865 5.6533227 0.66651571 15
6.3371744 2.7292192 -2.1530387 17
13.129277 5.6543617 0.9996103 19
6.8616452 2.955092 -2.1422536 6
6.4891162 2.7946558 0.65916121 5
7.6216002 3.2823806 -2.1723907 12
6.9657879 2.999943 0.88692677 30
8.5545149 3.6841571 -2.2069135 3
6.9686508 3.0011761 1.0663444 21
9.6862926 4.1715775 -2.241704 3
6.9821067 3.0069709 1.2489766 33
11.161135 4.8067455 -2.2895908 2
7.0111356 3.0194728 1.4382616 51
3.2570105 1.391922 -2.1005616 30
13.079012 5.5894709 -2.3368053 3
3.4664352 1.4814221 -2.1180642 8
13.329338 5.6964507 -2.0372159 47
3.6893284 1.5766783 -2.1332788 27
13.336349 5.6994467 -1.6960325 51
3.9573722 1.6912299 -2.1616673 7
13.345368 5.7033014 -1.3539931 50
4.2305064 1.8079571 -2.1776609 10
13.367002 5.7125468 -1.0164913 55
4.5362606 1.9386246 -2.196378 8
13.392446 5.7234201 -0.67918646 53
4.8653169 2.0792508 -2.2100153 10
13.383162 5.7194529 -0.33790278 71
5.1616259 2.2058818 -2.1918914 12
13.388609 5.7217803 0 56
5.5250034 2.3611755 -2.1868768 18
13.390517 5.7225962 0.33808848 22
5.8977461 2.5204716 -2.167192 13
6.3500371 2.7137635 -2.1548259 17
13.418371 5.7344999 1.0203977 36
6.8769412 2.9389422 -2.1444588 5
6.4877391 2.7726121 0.65823233 3
7.632515 3.2618458 -2.1728976 12
6.9668307 2.9773576 0.88599759 38
8.5665579 3.6610198 -2.2073746 3
6.9697194 2.9785922 1.065231 30
9.6943045 4.1429758 -2.2408724 3
6.9886603 2.9866867 1.2486522 31
11.165478 4.7716994 -2.2877395 2
7.0141177 2.9975662 1.4371507 43
3.2595429 1.38158 -2.0995414 28
13.100992 5.552947 -2.3377781 3
3.4724209 1.4718099 -2.1190436 8
13.326124 5.6483707 -2.0341542 43
3.6907389 1.5643455 -2.1314011 28
13.333084 5.6513209 -1.6934773 48
3.9557908 1.6766896 -2.1580765 7
13.342066 5.6551275 -1.3519493 50
4.244175 1.7989233 -2.1819394 8
13.363689 5.6642933 -1.0149567 55
4.5419931 1.9251555 -2.196378 10
13.394655 5.6774182 -0.67844111 53
4.8646688 2.0619237 -2.2069318 12
13.385348 5.6734734 -0.33753142 66
5.1595721 2.1869206 -2.1882541 12
13.392638 5.6765633 0 60
5.5302548 2.3440371 -2.1861928 20
13.400075 5.6797156 0.33790278 35
5.8982205 2.5000021 -2.1646309 14
6.3510308 2.6919286 -2.1524429 17
13.411448 5.6845365 1.018584 30
6.8838615 2.9177728 -2.1439075 6
6.4886036 2.7502401 0.65748918 3
7.640379 3.2384279 -2.1723907 12
6.9628325 2.9512453 0.88437146 32
8.5738001 3.6340649 -2.2064524 3
6.9657626 2.9524872 1.0632826 33
9.6975489 4.110374 -2.2387934 3
6.9865899 2.9613152 1.2467068 30
11.183207 4.7400804 -2.28848 2
7.0103145 2.9713707 1.4345585 37
3.2604556 1.3705699 -2.097501 28
13.126506 5.5178771 -2.3393991 3
3.4767723 1.4615012 -2.1190436 8
13.330043 5.6034365 -2.0322058 47
3.6969922 1.554073 -2.13234 28
13.325986 5.6017313 -1.6904573 45
3.9673386 1.6677163 -2.1616673 7
13.329412 5.6031713 -1.3489767 47
4.2428274 1.7835212 -2.1785164 9
13.367559 5.6192069 -1.01398 58
4.5527377 1.9137955 -2.1988184 12
13.394864 5.6306849 -0.67760259 53
4.8707647 2.047482 -2.2069318 13
13.385533 5.6267624 -0.33711362 62
5.1729069 2.1744909 -2.1911638 12
13.390984 5.6290536 0 56
5.5354524 2.3268909 -2.1855087 18
13.392906 5.6298618 0.33729929 32
5.9091058 2.4839604 -2.1659114 13
13.437224 5.6484914 0.67974544 26
6.3554692 2.6715944 -2.1512516 17
13.435612 5.6478138 1.019142 19
6.8853989 2.8943563 -2.1417024 7
6.4820485 2.7248034 0.65600288 2
7.6463857 3.214246 -2.1713779 12
6.9605703 2.9259555 0.88297766 30
8.5917196 3.6116281 -2.2082968 3
6.97084 2.9302726 1.0627259 35
9.7151117 4.083859 -2.2400408 4
6.9862485 2.9367497 1.2450856 31
11.193598 4.7053571 -2.2877395 3
7.0100398 2.9467506 1.432707 41
3.2687957 1.3640157 -2.1005616 23
13.133623 5.4804492 -2.3381023 3
3.4789782 1.4517214 -2.1180642 8
13.348325 5.5700402 -2.0327625 33
3.7091966 1.5477879 -2.1370347 29
13.346107 5.5691152 -1.6911542 39
3.9766397 1.6593876 -2.1643603 8
13.371605 5.5797548 -1.3517636 30
4.2458143 1.7717098 -2.1776609 9
13.395117 5.5895662 -1.0149567 37
4.5509882 1.8990539 -2.1955645 12
13.41878 5.5994406 -0.6780684 34
4.8675933 2.031168 -2.2030776 12
13.4076 5.5947752 -0.33729929 39
5.1803026 2.1616566 -2.1918914 12
13.403831 5.5932026 0 39
5.5484638 2.3152843 -2.1882448 17
13.431588 5.604785 0.33790278 27
5.9243326 2.4721284 -2.1691127 15
13.455654 5.6148276 0.67993176 21
6.3642044 2.6556799 -2.1518474 16
13.428259 5.6033959 1.0174679 17
6.8911796 2.8755782 -2.1411512 7
13.49106 5.6296015 1.3638395 5
7.6494193 3.1919792 -2.1698585 9
6.9608746 2.9046607 0.88204843 26
8.5939636 3.586122 -2.2064524 3
6.9638667 2.9059093 1.0604991 23
9.720355 4.0561476 -2.2387934 4
6.9939141 2.9184475 1.2450856 31
11.200437 4.6737614 -2.2866285 3
7.0086622 2.9246016 1.4308554 47
3.2791867 1.3569427 -2.1046426 22
13.133413 5.4346676 -2.3351841 3
3.4881034 1.4433933 -2.1210032 7
13.459954 5.5697918 -2.0472364 24
3.7088773 1.5347507 -2.1342177 28
13.458018 5.5689907 -1.703234 28
3.9765913 1.645532 -2.1616673 7
13.483782 5.5796518 -1.3614243 28
4.2510524 1.7591052 -2.1776609 9
13.501974 5.5871797 -1.0217929 31
4.54985 1.8827491 -2.1923106 14
13.527636 5.5977983 -0.6827268 26
4.8735981 2.0167174 -2.2030776 13
13.509128 5.5901399 -0.33943468 28
5.1884146 2.1469901 -2.1926188 10
13.507224 5.5893521 0 27
5.5466261 2.2952197 -2.1848247 17
13.536839 5.6016073 0.34013101 24
5.9281392 2.4530916 -2.1678321 15
13.559017 5.6107841 0.68431062 21
6.3738198 2.6375163 -2.1524429 16
13.483538 5.5795507 1.0203977 22
6.8961282 2.8536499 -2.1400485 6
13.581305 5.620007 1.3712709 7
7.6624317 3.1707499 -2.1708715 8
6.9639554 2.8817172 0.88135153 32
8.6099596 3.5628414 -2.2078357 4
6.9651375 2.8822062 1.0593858 31
9.7305393 4.0265427 -2.2383776 5
6.9843063 2.8901384 1.2418432 36
11.214254 4.6405106 -2.2866285 3
7.0045958 2.8985343 1.4282633 49
3.2818415 1.345982 -2.1036222 18
13.152247 5.3941326 -2.3355083 3
3.4893939 1.4311055 -2.1190436 7
13.561675 5.5620513 -2.0600405 26
3.716948 1.5244323 -2.1360958 27
13.565503 5.5636215 -1.7146168 31
3.9833944 1.63371 -2.162565 7
13.587837 5.5727811 -1.3701562 28
4.259902 1.7471142 -2.1793723 8
13.595141 5.5757766 -1.0275128 27
4.5506706 1.866367 -2.1898701 15
13.62833 5.5893888 -0.68691927 24
4.8816171 2.0020981 -2.2038486 13
13.608018 5.581058 -0.34147725 40
5.1916857 2.1292667 -2.1911638 11
13.619086 5.5855975 0 33
5.5485916 2.2756445 -2.1827726 17
13.624667 5.5878863 0.34189504 26
5.9252977 2.4301431 -2.1639907 14
13.646815 5.5969701 0.68785095 23
6.378541 2.6160316 -2.1512516 15
13.600679 5.5780482 1.0279315 17
6.8961639 2.8283246 -2.1372921 7
13.694697 5.6166077 1.3809316 8
7.6651931 3.1437266 -2.1688454 6
6.961946 2.8553038 0.87995774 28
8.6193085 3.535038 -2.2073746 6
6.9704919 2.8588088 1.0588291 28
9.7431402 3.9959552 -2.2383776 5
6.9878726 2.8659372 1.2408705 34
11.225141 4.6037679 -2.285888 3
7.0027556 2.872041 1.4260415 51
3.2935543 1.3400543 -2.1087232 13
13.152633 5.3514352 -2.3329144 3
3.4966066 1.4226706 -2.1210032 7
13.66521 5.5599885 -2.073401 26
3.7277329 1.5167093 -2.1398516 21
13.660105 5.5579114 -1.7246057 27
3.9879408 1.6225806 -2.162565 7
13.686349 5.5685892 -1.3785164 26
4.2630897 1.7345309 -2.1785164 9
13.712299 5.5791478 -1.0351861 28
4.5694032 1.8591613 -2.196378 20
13.738261 5.5897112 -0.69167078 24
4.8803506 1.9856769 -2.2007651 13
13.708742 5.5777006 -0.34361264 30
5.1889834 2.1112509 -2.1875265 12
13.710585 5.5784502 0 33
5.5601473 2.2622671 -2.1848247 18
13.749486 5.5942783 0.34463391 25
5.9425907 2.4178724 -2.1678321 15
13.775272 5.6047697 0.69353414 21
6.3840523 2.5974908 -2.1506557 15
13.701211 5.5746365 1.034349 35
6.9040346 2.809057 -2.1372921 7
13.791486 5.6113663 1.3891062 9
7.6793184 3.1244981 -2.1703649 6
6.9570117 2.8306119 0.8783316 28
8.6237392 3.5087562 -2.2059913 6
6.9729443 2.8370943 1.057994 23
9.7633209 3.97242 -2.2404566 5
6.9903641 2.844182 1.2398977 38
11.236131 4.5716648 -2.2855177 3
7.001646 2.8487723 1.42419 51
3.2956884 1.3302068 -2.107703 10
13.174848 5.3176365 -2.3342113 3
3.4989491 1.4122469 -2.1200233 7
13.772513 5.5588665 -2.0873184 24
3.7352295 1.5076145 -2.1417294 15
13.767678 5.5569148 -1.7362207 27
3.9907994 1.6107677 -2.1616673 7
13.790484 5.5661197 -1.3874341 26
4.2746229 1.7253246 -2.1819394 8
13.820333 5.578167 -1.0421617 31
4.5661063 1.8429732 -2.1923106 21
13.842745 5.587213 -0.69614279 22
4.873898 1.9672042 -2.1953692 12
13.826243 5.5805531 -0.34616581 26
5.1983142 2.0981452 -2.1889815 13
13.824406 5.5798111 0 24
5.5681863 2.2474332 -2.1855087 15
13.861472 5.5947719 0.34704784 22
5.9352641 2.3955932 -2.1627104 14
13.877945 5.6014204 0.69791293 20
6.3948226 2.5810804 -2.1518474 15
13.757428 5.5527778 1.0374182 41
6.9172015 2.7919233 -2.1389461 5
13.803411 5.5713367 1.3887346 16
7.688015 3.103039 -2.1703649 6
6.9612064 2.8096843 0.87786704 26
8.6353083 3.4853861 -2.2064524 6
6.9734941 2.8146439 1.0568806 25
9.7834473 3.9487979 -2.2425356 6
6.98913 2.8209548 1.2382766 36
11.252501 4.541738 -2.2862582 2
6.9986396 2.8247931 1.4219682 54
3.2993898 1.3209988 -2.107703 10
13.200639 5.2852283 -2.3361568 2
3.504498 1.4031193 -2.1210032 8
13.868882 5.5527773 -2.0995655 21
3.7410638 1.4978348 -2.1426682 9
13.879037 5.5568428 -1.7483004 27
4.0002594 1.6016105 -2.1643603 7
13.902104 5.5660787 -1.3970948 22
4.2693543 1.70935 -2.1768053 9
13.902534 5.5662508 -1.0471842 46
4.5695386 1.8295367 -2.1914973 19
13.951028 5.5856662 -0.70080113 24
4.875946 1.9522151 -2.1938276 12
13.93644 5.5798254 -0.34853333 25
5.1989641 2.0815442 -2.186799 13
13.940195 5.5813293 0 25
5.5726957 2.2311776 -2.1848247 17
13.964283 5.5909734 0.34922963 22
5.947207 2.3811231 -2.1646309 13
13.993686 5.6027455 0.70294398 20
6.4020052 2.5632136 -2.1518474 15
13.783994 5.5187898 1.0382553 41
6.930325 2.7747407 -2.1405997 5
13.807822 5.5283303 1.3876199 34
7.7020378 3.0837164 -2.1718843 6
6.9579597 2.785805 0.87647325 28
8.6269407 3.4540257 -2.2018411 5
6.9739718 2.7922158 1.0557673 26
9.7944355 3.9214635 -2.2425356 6
6.9841547 2.7962928 1.236007 34
11.270613 4.5124907 -2.2873693 2
6.9992018 2.8023171 1.4204869 54
3.3096914 1.3137414 -2.1117837 10
13.218099 5.2467618 -2.3364811 2
3.5054047 1.3914274 -2.1190436 7
13.982862 5.5503254 -2.1143179 21
3.7454922 1.4867271 -2.1426682 9
13.985935 5.5515456 -1.7596831 26
4.0033331 1.589074 -2.1634626 7
14.009253 5.560801 -1.4061983 26
4.2811289 1.6993415 -2.180228 9
13.896737 5.5161395 -1.0455101 42
4.5800419 1.8179915 -2.1939375 16
14.060386 5.5810976 -0.70545948 21
4.8817172 1.9377378 -2.1938276 12
14.051432 5.5775433 -0.35099366 24
5.2016554 2.0647333 -2.1853442 13
14.0515 5.5775709 0 22
5.581039 2.2153249 -2.1855087 17
14.077449 5.5878706 0.35164356 21
5.9524856 2.3627663 -2.1639907 13
14.097524 5.5958395 0.70732284 21
6.4024854 2.541388 -2.1494644 14
13.783621 5.4712391 1.0369998 39
6.9331679 2.7520359 -2.1389461 4
13.809359 5.4814558 1.3861336 28
7.7165504 3.06299 -2.173404 3
6.962503 2.7636802 0.87600863 30
8.6498137 3.4334376 -2.2050688 6
6.9693413 2.7663946 1.0538188 31
9.8151207 3.8959918 -2.2446148 6
6.977747 2.769731 1.233413 38
11.294913 4.483377 -2.2895908 3
6.9983525 2.7779102 1.4186354 57
3.3087721 1.3020264 -2.1087232 9
13.250134 5.214026 -2.3393991 2
3.5111399 1.3816596 -2.1200233 8
14.111689 5.5530543 -2.1312971 22
3.7482433 1.4749616 -2.1417294 9
14.096618 5.5471234 -1.7715305 27
4.0146823 1.5798073 -2.1670535 7
14.116489 5.5549431 -1.4153017 24
4.2827873 1.6853086 -2.1785164 9
13.905615 5.4719625 -1.0449519 40
4.5752144 1.8003807 -2.1890569 19
14.145667 5.5664248 -0.70890665 21
4.8891621 1.9239215 -2.1945984 11
14.155364 5.570241 -0.35317549 24
5.211225 2.0506556 -2.186799 13
14.157318 5.5710096 0 21
5.5945816 2.2015095 -2.1882448 15
14.17211 5.5768304 0.35359329 24
5.9559431 2.3437078 -2.1627104 14
14.192143 5.5847139 0.71123582 21
6.4135499 2.5237794 -2.1506557 16
13.783081 5.4237447 1.0357441 39
6.9502468 2.7349737 -2.1417024 4
13.814443 5.4360857 1.3850188 36
7.7292037 3.0414991 -2.174417 3
6.9595804 2.7386465 0.87461478 30
8.6581507 3.4070466 -2.204608 6
6.9701457 2.7428041 1.0527054 35
9.8229952 3.8654213 -2.2437832 6
6.9785876 2.7461259 1.232116 38
11.28622 4.4412107 -2.2851474 6
7.0010762 2.7549756 1.4175245 57
3.310792 1.2921565 -2.107703 7
13.262804 5.1762891 -2.3390749 2
3.5117359 1.3705821 -2.1180642 8
14.20832 5.545311 -2.1435442 21
3.7556372 1.4657733 -2.1436071 9
14.206429 5.5445733 -1.783378 23
4.0140834 1.5666413 -2.1643603 7
14.230264 5.5538754 -1.4251482 19
4.2908444 1.6746573 -2.180228 9
13.928275 5.4360137 -1.0455101 4
4.5921383 1.7922481 -2.194751 21
14.282127 5.5741172 -0.71496248 17
4.892796 1.9095908 -2.1938276 12
14.269583 5.5692215 -0.35563582 22
5.2082539 2.0327096 -2.1831617 12
14.25666 5.564178 0 21
5.5954552 2.1838291 -2.1861928 17
14.299385 5.5808525 0.35637859 15
5.9624643 2.3270676 -2.1627104 13
14.31935 5.588645 0.71682584 20
6.4241295 2.5072491 -2.1518474 17
13.774012 5.3758068 1.0339304 39
6.9524841 2.7134588 -2.1400485 4
13.807307 5.3888016 1.3827895 38
7.7304573 3.0170908 -2.1723907 3
6.9597988 2.7163136 0.8736856 34
8.6676311 3.3828568 -2.204608 6
6.9630179 2.7175698 1.0504787 44
9.8337507 3.8379772 -2.2437832 6
6.9825516 2.7251935 1.2314675 40
11.291253 4.4068203 -2.2836661 5
7.0032496 2.7332718 1.4164137 52
3.312784 1.282284 -2.1066828 7
13.255123 5.1306796 -2.3351841 2
3.5139239 1.3601396 -2.1170843 9
3.7580695 1.4546415 -2.1426682 9
4.0184431 1.5554246 -2.1643603 7
25.152395 9.735774 -2.516257 47
4.2921333 1.6613623 -2.1785164 9
4.597126 1.7794161 -2.194751 21
25.249104 9.7732077 -1.2625973 45
4.896389 1.8952523 -2.1930566 12
25.26041 9.7775831 -0.62887335 56
5.2069612 2.015466 -2.1802518 13
25.274677 9.7831059 0 47
5.5997801 2.167515 -2.1855087 17
25.284649 9.7869654 0.62947679 49
5.9654064 2.3090386 -2.1614299 13
20.021168 7.7496223 1.0011711 14
6.420424 2.4851627 -2.1482728 15
13.768506 5.3293953 1.0323958 39
6.9582424 2.693337 -2.1394973 4
13.80559 5.3437495 1.3811175 38
7.7370491 2.9947908 -2.1718843 3
6.9599481 2.6939971 0.87275642 34
8.6734152 3.3572316 -2.2036858 7
6.9631925 2.6952529 1.0493653 51
9.8426065 3.809792 -2.2433674 6
6.9846144 2.7035449 1.2304947 34
11.307181 4.376687 -2.2844067 4
6.9980254 2.7087359 1.4138215 52
3.3184016 1.2724867 -2.107703 7
13.276703 5.0911345 -2.3361568 3
3.5149231 1.3478457 -2.1151249 11
3.7609718 1.4421964 -2.1417294 7
4.0249782 1.5434332 -2.1652582 7
25.160542 9.6481562 -2.5140276 47
4.3040829 1.6504598 -2.1819394 9
4.6009865 1.7643117 -2.1939375 21
25.242371 9.679534 -1.260734 49
4.9005952 1.8792007 -2.1922858 12
25.248058 9.681716 -0.62780559 52
5.2167449 2.0004327 -2.1817067 12
25.262335 9.6871901 0 47
5.6118255 2.1519318 -2.1875608 17
25.289131 9.6974659 0.62882692 45
5.9797068 2.2930009 -2.1639907 14
20.190912 7.7424831 1.0084381 11
6.4317641 2.4663486 -2.1494644 16
13.759099 5.2761159 1.0304426 39
6.9648738 2.6707766 -2.1389461 4
13.803715 5.2932243 1.3792596 38
7.7518387 2.9725492 -2.173404 3
6.9609575 2.669275 0.87182719 32
8.6875525 3.3313618 -2.204608 6
6.9660773 2.6712382 1.0485302 48
9.8453922 3.7753513 -2.2412882 5
6.9857016 2.6787634 1.2291979 36
11.32638 4.343256 -2.2855177 3
6.9991598 2.683924 1.4123403 52
3.3219419 1.2632157 -2.107703 7
13.301936 5.05825 -2.3381023 3
3.520303 1.3386452 -2.1161046 16
16.536863 6.2883768 -2.4864669 0
3.7682853 1.4329441 -2.1436071 9
21.813101 8.2947416 -2.7290769 2
4.0276017 1.5315528 -2.1643603 7
25.152021 9.564414 -2.5104976 50
4.3086748 1.6384349 -2.1819394 9
4.6093111 1.752756 -2.1955645 20
25.231956 9.5948095 -1.2588707 49
4.904099 1.8648534 -2.191515 10
25.239491 9.5976744 -0.62692362 52
5.2205701 1.9851959 -2.1809793 13
25.259377 9.605237 0 47
5.621326 2.137589 -2.1889288 15
25.280605 9.6133089 0.62794489 42
5.9878573 2.276968 -2.1646309 13
17.969738 6.8332481 0.89654469 5
6.4368415 2.4477005 -2.1488686 17
13.762589 5.2334199 1.0296055 41
6.9741015 2.6520011 -2.1394973 4
13.799829 5.2475815 1.3774017 38
7.754683 2.9488285 -2.1718843 3
6.9609571 2.6470029 0.87089795 30
8.7113733 3.3126237 -2.2082968 7
6.9661045 2.6489601 1.0474168 46
9.8705254 3.7534077 -2.2446148 4
6.9857764 2.6564407 1.2279009 34
11.342138 4.3130093 -2.2862582 1
6.9937673 2.6594794 1.4097482 52
3.3254569 1.2539331 -2.107703 9
13.323397 5.0238652 -2.3393991 3
3.5338168 1.3324995 -2.1219828 18
16.5488 6.2400708 -2.4856317 0
3.7722726 1.4224143 -2.1436071 10
21.838041 8.2344904 -2.7293093 2
4.0318637 1.5202985 -2.1643603 7
25.146959 9.4821873 -2.5073392 50
4.3098507 1.6251193 -2.180228 9
4.6124787 1.7392316 -2.194751 21
25.226873 9.5123205 -1.2572868 49
4.9058342 1.8498474 -2.1899734 11
25.236259 9.5158596 -0.62618089 52
5.2260938 1.970608 -2.1809793 12
25.25429 9.5226583 0 45
5.6255155 2.1212182 -2.1882448 17
25.283033 9.5334969 0.62734145 45
5.9924207 2.2595675 -2.1639907 13
18.097176 6.8239183 0.90194839 5
6.4382935 2.4276931 -2.1470811 16
13.762217 5.1893315 1.0284895 41
6.9760847 2.6304786 -2.1378436 3
13.801388 5.204102 1.3761013 40
7.7610779 2.9264767 -2.1713779 3
6.9664636 2.6268508 0.87066567 26
8.7042036 3.2821019 -2.2041469 6
6.9660621 2.6266994 1.0463034 43
9.8791399 3.7251363 -2.244199 3
6.9857817 2.634135 1.226604 30
11.361496 4.2840896 -2.2877395 1
6.9993286 2.6392434 1.4093778 52
3.333997 1.2458678 -2.1107635 9
13.354882 4.9905324 -2.3423173 3
3.5312214 1.3195679 -2.1180642 18
16.580227 6.1957984 -2.4875801 0
3.7781305 1.4118344 -2.1445463 10
21.851213 8.1654921 -2.7279155 2
4.0413785 1.5102065 -2.1670535 7
25.145134 9.3963842 -2.5043669 47
4.3129597 1.6116925 -2.1793723 9
25.192812 9.4142008 -1.8806345 46
4.6210413 1.7268183 -2.196378 20
25.226915 9.4269438 -1.2558893 45
4.9130301 1.8359303 -2.1907442 10
25.234415 9.4297466 -0.62543809 52
5.2319174 1.9550941 -2.1809793 12
25.263697 9.4406891 0 45
5.6335444 2.1051764 -2.1889288 17
25.279366 9.4465446 0.62655222 42
5.9937735 2.239789 -2.16207 13
18.2577 6.8226461 0.9089359 5
6.4436793 2.4079125 -2.1464856 16
13.758863 5.1414943 1.0270944 41
6.9892607 2.6117887 -2.1394973 4
13.796248 5.1554642 1.3740577 38
7.7697263 2.9034376 -2.1713779 3
6.9686441 2.6040845 0.86996877 23
8.7175484 3.2576256 -2.2050688 6
6.9682598 2.6039407 1.0454684 35
9.8846493 3.6937549 -2.2429514 3
6.978776 2.6078706 1.22401 25
11.36311 4.2462344 -2.2855177 1
6.9979224 2.6150255 1.4075263 55
3.3346686 1.2341926 -2.1087232 9
13.351987 4.9416976 -2.3390749 1
3.5271738 1.3054407 -2.1131656 20
16.579182 6.1361132 -2.4845185 0
3.7842038 1.4005699 -2.1454852 10
21.867445 8.0933504 -2.726754 2
4.0461035 1.4975015 -2.1670535 7
25.146521 9.3069668 -2.5015802 47
4.3180022 1.5981338 -2.1793723 9
25.192329 9.3239212 -1.8784024 46
4.617877 1.7091203 -2.1923106 18
25.224556 9.3358488 -1.2543055 49
4.9153123 1.819204 -2.1892025 10
25.241415 9.3420887 -0.62488109 52
5.2327924 1.9367063 -2.1787968 12
25.265099 9.3508539 0 48
5.633081 2.084857 -2.1861928 15
25.282669 9.357357 0.62590235 40
5.9990044 2.2202888 -2.1614299 13
20.847778 7.7159619 1.0366677 10
6.4494224 2.3869927 -2.1458898 17
13.761852 5.0933928 1.0261178 46
6.9992352 2.5904837 -2.1400485 4
13.797437 5.1065631 1.3725713 40
7.7751818 2.8776689 -2.1703649 3
6.9712024 2.5801086 0.86927187 20
8.725915 3.2295444 -2.204608 6
6.9652619 2.5779099 1.0437983 35
9.8980417 3.6633596 -2.2433674 3
6.9758306 2.5818214 1.2220646 25
11.378238 4.2111945 -2.285888 1
6.9913588 2.5875685 1.4045639 52
3.3413312 1.2260613 -2.1107635 9
13.36944 4.905755 -2.3397236 1
3.5340791 1.2967877 -2.1151249 21
16.607405 6.0938873 -2.4861884 0
3.786442 1.3893894 -2.1445463 9
21.903013 8.0370474 -2.7283802 2
4.0536246 1.4874289 -2.168849 7
25.142498 9.2257376 -2.4986074 50
4.3258419 1.5873157 -2.1810834 9
25.192043 9.2439165 -1.8764491 46
4.6329226 1.6999952 -2.1971915 14
25.224268 9.2557421 -1.2530011 49
4.9099774 1.8016571 -2.1845772 11
25.231739 9.2584829 -0.62399906 52
5.2416782 1.9233707 -2.1802518 12
25.262947 9.2699347 0 45
5.6353521 2.0678246 -2.1848247 17
25.274912 9.2743244 0.62506676 43
6.0051804 2.2035286 -2.1614299 14
21.015535 7.7113976 1.0439347 10
6.4506855 2.3670013 -2.1441026 16
13.759163 5.0487595 1.0248621 43
7.0082455 2.5715914 -2.1405997 4
13.792948 5.0611563 1.3707135 36
7.7813702 2.8552802 -2.1698585 3
6.9746504 2.5592639 0.86880732 20
8.7440348 3.2085183 -2.2069135 6
6.9594178 2.5536745 1.04185 31
9.9045582 3.6343584 -2.2425356 3
6.9774542 2.560293 1.2210919 24
11.380726 4.1760206 -2.2840364 1
6.993021 2.566005 1.403453 55
3.3412969 1.2161335 -2.1087232 9
13.389655 4.8734393 -2.3410203 1
3.5391002 1.288128 -2.1161046 27
16.641912 6.0571651 -2.4889719 0
3.7884066 1.3788682 -2.1436071 9
